4 64
-3.414367 6.633874 16.070969 0.996277
3.579093 -6.899168 0.670722 0.670722
3.539229 -6.787986 25.205971 0.794343
-5.598494 6.311842 0.035646 0.036462
7.214554 1.947811 9.569849 0.996879
7.289441 1.538920 16.355227 1.023559
-6.327328 -3.939163 8.507364 1.019909
-6.126679 -4.240516 19.455553 1.023467
-0.512779 7.434647 7.473133 1.030169
-6.252458 4.049290 8.401601 1.050588
3.328722 6.659927 13.248316 1.010846
2.948905 -6.879224 11.305424 1.005411
1.107968 -7.369014 15.347294 1.005072
2.879992 -6.909964 12.424659 0.996864
-0.190247 8.467914 26.000000 0.000100
-4.531116 4.607509 26.000000 0.000100
-3.948696 -7.491186 0.000000 0.000100
2.633607 -5.901209 0.000000 0.000100
5.500257 -3.392244 26.000000 0.000100
-2.137954 -8.195787 26.000000 0.000100
-2.971724 5.738380 0.000000 0.000100
-7.850728 3.179282 0.000000 0.000100
5.500257 -3.392244 0.000000 0.000100
6.678703 5.209290 0.000000 0.000100
6.678703 5.209290 26.000000 0.000100
4.256015 4.862766 26.000000 0.000100
-5.687899 -3.067240 0.000000 0.000100
-6.905918 -4.904086 0.000000 0.000100
-6.339286 1.254434 26.000000 0.000100
-6.905591 -4.904329 26.000000 0.000100
4.256015 4.862766 0.000000 0.000100
1.774804 8.279443 0.000000 0.000100
5.297333 -6.609087 0.000000 0.000100
4.122391 -7.368527 25.999998 0.000100
1.959142 -6.145531 26.000000 0.000100
-4.866369 -6.902349 26.000000 0.000100
-2.658914 -8.047546 25.999999 0.000100
-5.644825 3.130418 0.000000 0.000100
-4.013542 7.463214 0.000000 0.000100
-1.148282 6.359371 26.000000 0.000100
-6.905918 4.904086 26.000000 0.000100
1.413653 -6.270035 0.000000 0.000100
6.678703 -5.209290 26.000000 0.000100
-2.137954 8.195787 0.000000 0.000100
-6.339286 1.254434 0.000000 0.000100
8.305005 1.668282 0.000000 0.000100
6.255778 1.620308 26.000000 0.000100
3.609371 7.658878 26.000000 0.000100
-8.372304 -1.283081 0.000000 0.000100
-8.372304 1.283081 26.000000 0.000100
-4.484485 -4.644697 26.000000 0.000100
0.777191 6.415304 0.000000 0.000100
4.315835 -7.247399 0.000000 0.000100
2.158482 -8.166548 26.000002 0.000100
2.633607 -5.901209 26.000000 0.000100
-5.650784 6.318371 0.000000 0.000100
-5.315864 6.567709 26.000002 0.000100
-3.509178 -5.422478 0.000000 0.000100
7.897859 -2.985106 26.000002 0.000100
-1.852992 -6.177450 25.999998 0.000100
7.720113 -3.473458 0.000000 0.000100
5.834175 2.698857 0.000000 0.000100
6.302233 5.661013 25.999999 0.000100
6.302232 5.661013 26.000000 0.000100