4 1289
275.758 33.3606 55.7608 32.3609
56.6455 19.8035 580.892 18.7983
73.7196 29.8502 492.439 28.8491
335.236 26.9022 685.168 25.8529
96.3655 137.373 606.269 61.5468
327.703 256.671 230.552 7.23688
153.376 295.681 381.335 5.96184
312.616 431.164 331.798 22.6354
316.604 370.99 311.472 16.152
79.2014 242.654 612.761 52.57
64.1833 380.487 611.906 54.3144
200.741 354.133 565.434 103.24
277.7 291.369 527.092 151.898
399.765 307.056 626.672 123.185
453.949 197.313 733.239 93.9276
196.464 383.021 472.562 74.2897
609.146 20.4355 50.1003 19.4346
442.29 130.469 59.8166 58.8537
907 16.8349 16.8154 15.8272
886.591 69.916 17.7291 16.7245
945.76 50.7592 66.0522 49.668
885.659 53.1417 142.932 52.1573
918.037 22.3326 270.192 21.3413
844.103 17.5257 400.637 16.552
371.842 52.2894 681.319 51.4411
415.964 21.2503 873.864 20.271
651.628 119.852 562.124 32.9691
791.163 99.6489 441.736 28.5744
406.041 116.208 907.734 11.9689
359.302 181.115 152.336 25.186
474.949 181.575 74.7477 17.8204
457.698 174.12 14.9142 13.9329
545.647 161.448 219.221 10.6121
532.3 171.467 257.448 22.0015
360.165 470.919 328.151 16.1001
471.99 479.084 432.112 27.5238
449.8 404.682 456.489 61.3643
516.805 274.885 342.287 10.5497
435.159 138.766 523.104 137.642
472.529 480.011 697.334 26.6838
369.417 227.694 504.833 162.76
548.48 144.995 671.978 50.6271
443.689 324.941 784.345 76.9443
203.091 42.5063 394.174 41.3821
214.91 100.863 262.656 37.7461
264.187 47.9842 173.878 46.9746
392.151 271.412 601.837 134.932
448.343 132.269 550.683 131.132
83.4815 191.531 613.541 51.7557
76.8159 272.718 613.093 52.4175
224.674 254.976 438.956 80.4354
215.46 267.816 437.127 72.5942
264.243 195.811 446.444 116.683
418.289 247.297 653.207 113.431
271.541 51.5487 626.972 50.5346
210.369 62.0512 468.799 60.9019
213.029 280.137 441.663 72.2969
194.999 293.834 429.139 54.1429
179.83 78.2822 590.579 77.125
234.26 192.688 401.962 79.3263
345.547 301.581 294.363 32.5228
279.922 120.133 391.408 119.029
179.665 230.88 366.106 23.4215
464.93 232.431 192.823 18.7772
459.692 252.739 221.987 20.4101
401.937 245.974 303.458 78.3573
408.97 205.932 264.85 78.4048
311.479 76.3256 269.78 75.25
444.689 253.635 246.241 35.0133
397.97 268.502 320.769 78.3741
391.416 305.18 343.337 78.3667
190.819 238.782 386.943 38.0816
193.582 228.155 382.183 39.4689
195.939 161.809 319.099 28.2818
133.748 207.634 562.249 104.514
243.651 257.921 465.739 104.499
238.708 206.621 420.279 87.6065
308.559 454.927 396.514 22.8631
292.733 135.426 422.056 134.445
244.611 190.866 414.38 91.3465
223.947 257.439 439.851 80.0568
382.669 355.277 371.923 78.5001
393.573 351.985 354.379 68.3937
372.954 410.461 392.399 78.2928
136.999 299.104 562.287 104.584
293.392 323.631 534.829 149.913
130.504 245.772 562.293 104.559
384.697 343.787 366.651 78.5009
198.762 267.704 417.074 53.0205
206.89 219.069 390.675 52.8746
378.722 377.776 373.855 78.3584
438.977 432.569 508.563 67.4805
208.172 421.821 632.849 38.0845
211.991 264.365 430.128 67.6012
311.111 53.073 640.387 51.9625
263.099 137.13 385.28 101.899
173.727 31.9717 636.552 30.8858
312.024 82.113 609.584 80.8934
303.674 93.8155 594.054 92.6303
420.074 405.784 492.792 90.6192
406.772 387.477 667.22 106.364
399.56 342.158 634.567 119.2
285.87 427.402 447.992 45.9619
470.245 368.389 429.91 45.3547
343.154 67.2786 642.839 66.1496
181.604 252.009 385.279 29.7657
335.116 399.543 637.31 81.9902
524.607 52.1984 727.381 51.1038
467.337 117.701 743.728 98.3342
438.25 159.449 645.837 126.985
399.651 172.703 579.416 152.927
468.28 108.618 845.91 74.0896
393.858 31.0777 744.411 29.989
468.312 122.68 792.209 83.1646
468.432 134.115 811.056 79.1376
463.8 202.83 793.379 82.9207
355.07 275.092 536.433 170.688
415.527 77.7462 695.474 76.511
451.123 234.237 755.854 84.3903
432.313 247.712 693.941 99.0688
426.809 104.968 111.49 78.4915
696.866 40.2043 165.013 39.2004
603.709 44.1862 227.072 43.1619
610.646 57.3647 276.676 56.3575
514.096 60.3165 125.561 59.3019
519.296 90.9404 176.382 48.9633
789.585 36.9051 61.0253 35.914
870.888 57.3829 284.577 56.4919
851.89 93.3643 375.517 24.2239
533.341 98.3446 471.139 97.2437
526.322 204.823 297.012 22.0332
354.17 74.631 254.665 73.5957
364.339 103.302 335.743 102.283
355.654 88.4341 297.84 87.4044
407.323 215.284 274.349 78.442
348.768 143.896 432.63 142.951
333.121 112.315 363.773 111.175
446.907 58.2583 808.874 57.1513
529.057 59.056 700.43 57.8859
418.23 260.825 657.932 111.038
536.711 97.116 603.994 96.1372
466.679 161.136 795.231 82.6448
505.253 107.773 598.571 106.701
463.124 204.27 845.015 74.6717
471.118 212.822 154.41 16.1169
414.03 177.925 230.765 78.3543
455.471 214.429 191.213 31.2053
333.456 97.9014 328.618 96.9379
257.379 156.335 399.671 99.6861
257.618 86.6044 313.712 85.6112
465.313 124.92 465.896 123.984
335.47 136.89 419.717 135.947
479.103 299.699 401.379 45.1422
407.325 215.499 295.544 78.4967
542.047 193.002 260.696 8.7198
589.902 84.5792 367.165 83.5873
130.285 87.9345 579.535 86.9289
112.268 67.749 599.706 66.6261
94.5972 71.6551 610.499 55.9638
97.4954 86.1271 606.136 59.7913
264.873 116.757 473.559 116.121
85.5167 176.919 511.925 52.6668
157.165 183.294 562.26 104.606
109.887 122.41 532.095 74.2062
297.189 159.389 521.015 158.819
223.26 70.4806 440.656 69.3269
232.516 245.933 444.223 88.9795
237.57 237.965 444.905 93.3191
315.245 450.269 344.863 28.6257
353.057 329.38 322.081 44.7348
364.192 416.082 376.908 70.8803
82.2835 214.965 511.723 52.5063
144.93 262.552 562.278 104.59
82.4721 242.964 514.234 55.0961
83.4475 387.767 507.666 49.8802
66.5363 338.886 509.639 50.5667
141.003 247.863 562.281 104.578
237.541 240.352 446.52 93.7856
225.626 269.605 452.029 85.7673
379.166 375.136 388.064 78.4965
381.079 364.29 383.626 78.4984
213.391 263.815 431.778 69.2793
273.448 374.618 587.998 95.6984
158.559 284.434 562.305 104.661
128.725 264.576 562.271 104.54
306.68 215.695 513.556 170.449
146.397 208.199 562.265 104.566
253.318 425.595 444.652 42.071
290.595 309.894 531.515 150.995
142.527 322.247 562.294 104.634
297.659 159.784 520.734 159.243
232.611 183.702 391.936 75.5626
413.01 189.665 613.545 134.914
297.792 273.503 525.689 157.12
281.949 133.939 469.182 133.21
184.593 346.117 445.59 53.5823
184.311 235.719 376.355 29.8704
389.533 316.361 361.682 78.5015
358.747 216.718 517.062 177.603
301.293 228.698 515.958 166.749
487.759 383.156 413.522 26.4324
299.499 436.629 667.983 39.2605
287.874 262.77 522.482 158.044
487.632 386.369 414.212 26.1655
239.578 392.66 603.593 72.1246
380.424 229.489 566.71 153.712
463.419 367.451 438.467 52.2894
289.902 295.64 528.991 152.911
497.983 191.097 770.108 57.7488
427.641 75.2126 716.619 74.0336
439.921 251.649 720.227 90.4926
458.17 150.698 693.154 114.091
514.633 104.083 629.702 103.24
290.136 256.054 521.305 159.688
430.58 80.2562 80.1692 79.1634
865.886 43.153 54.7717 42.1515
852.023 34.3846 34.4392 33.4138
516.292 171.688 285.518 37.6718
520.412 122.204 222.353 42.0985
503.922 222.246 338.186 37.2395
413.024 183.128 260.867 78.4986
340.433 62.6388 211.936 61.6137
525.68 183.876 280.298 26.3413
434.457 186.588 201.486 56.9508
371.689 65.715 212.529 64.695
471.172 244.157 390.19 63.1149
406.458 220.423 299.511 78.496
521.977 143.89 247.641 36.9304
409.495 203.166 282.305 78.4987
347.311 69.842 237.425 68.8187
347.804 103.963 341.906 102.918
411.378 192.469 267.019 78.499
496.984 218.261 345.93 44.8401
484.952 237.793 369.375 50.9288
517.625 203.175 309.372 30.9037
816.092 71.8692 378.963 51.5494
760.455 67.017 390.436 66.0155
671.695 74.7832 368.482 73.7836
763.998 66.6817 300.533 65.6826
446.266 134.016 571.057 132.882
315.755 105.335 586.459 104.036
423.125 217.93 650.579 114.751
422.647 208.165 641.478 120.708
437.408 183.062 664.483 114.646
483.756 164.188 728.09 84.8476
497.96 109.371 647.168 108.26
473.145 120.486 644.843 119.38
496.417 47.8747 856.437 46.7995
682.65 73.8577 467.764 72.8559
543.947 95.1069 543.968 94.0792
585.891 84.5165 551.934 83.4558
470.674 82.5692 821.26 77.3532
468.548 131.17 803.53 80.5523
467.55 146.354 797.978 81.0758
375.854 147.494 83.1301 35.7415
425.041 114.989 143.997 78.4998
517.568 112.494 215.422 46.6865
398.519 137.856 110.658 56.4826
422.434 128.772 138.597 78.573
512.363 116.122 233.114 51.214
427.443 211.481 240.041 59.204
320.908 425.989 338.054 29.9282
335.076 410.041 345.959 41.06
448.103 445.343 476.875 56.4808
425.872 413.468 489.208 83.9933
476.762 380.009 424.952 37.5642
419.788 423.661 334.554 30.0031
486.943 329.831 401.172 33.6317
494.406 375.587 404.874 20.8029
375.198 397.664 391.883 78.4961
428.208 247.288 267.383 52.5353
492.205 246.103 363.262 41.719
452.425 274.14 248.053 23.8286
544.703 187.265 389.739 22.736
427.722 313.111 302.777 41.3458
325.568 114.207 370.246 113.334
393.537 237.653 595.79 138.677
166.645 86.1358 542.623 85.047
403.596 237.683 613.625 129.036
452.108 131.267 515.675 130.377
372.329 177.044 529.651 175.856
406.451 226.676 619.049 127.55
382.011 105.65 624.48 104.411
400.924 269.025 618.889 126.773
432.573 100.385 679.809 99.642
265.631 58.4752 618.523 57.3103
262.461 97.2183 578.051 95.9586
343.614 122.671 578.932 122.059
388.953 266.613 594.468 138.802
422.763 145.355 490.176 144.156
547.466 203.396 386.375 9.89392
313.393 199.656 510.365 175.519
310.984 322.323 537.33 153.819
336.888 131.685 408.133 130.572
212.022 284.294 444.165 72.3719
399.363 378.088 497.961 114.588
382.468 85.2652 649.749 84.4661
278.286 220.443 481.444 137.313
404.176 207.603 600.295 138.952
254.588 211.662 446.152 108.075
294.594 244.13 519.269 162.831
403.067 239.638 315.393 78.4996
446.164 220.997 722.637 92.7163
468.078 128.536 791.941 83.1988
461.791 126.471 663.032 125.424
440.094 174.101 666.203 116.295
481.542 117.382 558.704 116.456
418.668 148.86 598.8 147.717
448.074 154.552 670.388 119.412
499.846 88.3577 692.282 87.1673
454.799 276.057 847.39 72.351
261.306 75.2064 279.091 74.2454
191.658 181.822 335.052 27.1482
219.256 192.985 383.359 61.8728
73.807 323.591 608.928 56.5896
69.7268 310.686 614.829 50.3305
264.879 180.981 431.177 112.783
253.129 106.28 473.91 104.938
425.505 144.088 507.623 142.916
161.412 166.551 562.317 104.677
355.62 270.081 533.618 170.465
416.893 92.402 672.736 91.6836
391.453 265.689 597.586 136.215
358.306 88.8807 627.22 87.6719
447.959 132.482 556.776 131.582
440.783 136.427 502.874 135.298
413.205 192.88 611.499 134.475
152.001 254.899 562.283 104.612
221.932 239.937 425.625 74.4758
259.245 203.383 445.531 112.091
232.544 250.875 447.429 90.0331
225.613 256.777 441.598 82.0183
250.65 256.411 471.325 111.163
183.688 391.906 476.011 63.4019
390.462 311.091 363.246 78.5017
321.082 231.817 520.431 169.625
296.885 91.3519 593.697 90.1802
314.226 113.509 577.253 112.193
315.666 146.341 541.876 145.503
310.989 203.595 510.13 173.568
155.371 104.04 560.669 103.015
226.553 171.455 371.777 65.7211
252.876 64.6577 608.638 63.5332
212.53 238.188 413.128 63.2136
237.797 236.663 444.281 93.3151
207.075 347.052 557.593 111.367
143.571 224.428 562.286 104.583
214.567 184.519 369.196 54.5265
189.401 37.7346 450.223 36.6544
338.414 150.97 448.646 150.081
352.397 243.239 243.616 29.2744
340.119 271.441 261.032 21.9955
506.098 212.35 330.726 38.4342
274.8 156.239 422.028 120.062
292.471 138.663 429.831 137.826
356.211 92.7854 310.528 91.8445
217.72 155.78 342.102 52.2619
497.293 204.333 339.321 48.9707
304.476 108.51 360.04 107.578
301.295 106.487 355.559 105.4
336.193 249.393 231.73 14.3148
508.946 185.367 309.975 42.6208
442.45 286.722 270.658 31.445
327.612 109.804 358.85 108.737
315.565 110.788 363.651 109.88
304.027 98.9821 337.218 97.9015
326.759 92.3578 314.709 91.2941
336.024 136.16 417.737 135.075
394.685 199.527 239.921 63.4229
226.603 214.2 411.529 74.9742
347.547 194.121 513.239 183.661
471.86 121.775 443.291 120.659
344.193 89.5234 303.389 88.4563
263.48 115.547 559.544 114.303
222.54 248.509 433.333 77.4098
314.464 304.648 534.526 156.736
193.804 350.037 457.701 65.069
190.377 202.258 354.696 30.0051
393.022 296.571 353.168 78.5007
456.513 365.879 444.831 59.3611
282.077 278.004 524.943 154.547
442.144 436.979 532.004 63.6675
414.034 397.054 545.457 97.9905
442.661 437.67 524.75 63.0781
424.584 412.71 532.212 84.5967
322.522 126.77 399.746 125.652
511.867 105.745 452.623 104.828
217.129 67.9019 467.198 67.0989
212.099 63.6233 467.8 62.4793
420.92 407.57 515.415 89.0378
300.531 302.458 531.3 153.574
327.217 442.121 409.559 38.8665
291.833 380.665 599.076 92.911
385.567 338.854 375.897 78.5025
245.292 221.091 441.821 98.7634
429.052 374.938 319.25 29.3197
254.028 372.764 490.082 94.0078
417.535 402.397 501.038 93.5424
223.412 235.933 424.739 75.4817
415.67 399.954 492.94 95.645
466.037 417.064 440.165 43.3096
454.785 380.918 449.646 59.2266
270.012 361.598 501.046 107.849
442.732 437.745 517.535 63.0201
452.935 452.096 561.46 50.6364
283.446 385.9 483.07 86.2145
411.047 318.686 655.181 110.328
311.039 260.327 525.298 163.045
297.962 270.766 525.081 157.675
330.69 144.935 437.222 143.783
257.806 402.487 465.167 65.593
393.314 320.846 612.775 128.773
405.586 213.104 610.142 133.853
282.523 285.508 526.603 153.405
370.392 234.928 551.412 162.824
455.05 128.553 489.346 127.411
431.517 140.26 433.197 139.099
157.22 241.225 562.283 104.623
503.566 107.959 551.188 106.998
500.119 205.789 336.058 45.9536
256.778 407.326 621.066 60.6647
405.5 385.45 594.003 107.965
424.336 412.544 647.234 84.5963
393.117 288.791 604.919 132.451
318.145 387.086 612.987 91.2196
420.187 271.38 664.908 106.604
364.558 330.262 562.847 155.112
385.252 340.639 376.571 78.5023
408.676 35.2986 762.855 34.2146
418.77 61.6788 726.761 60.5014
464.84 130.813 705.695 112.562
468.917 117.35 783.289 85.772
468.008 109.646 746.768 96.5576
422.005 60.6026 735.397 59.4406
468.824 115.06 766.015 90.5578
430.034 237.775 681.484 103.03
453.738 171.813 701.573 105.89
439.244 199.45 683.121 106.754
413.838 95.0469 667.272 93.8036
445.265 199.285 700.62 101.555
383.883 36.816 719.793 35.739
400.42 85.3058 667.001 84.0824
272.856 89.4348 587.826 88.6646
467.388 122.066 585.567 120.908
365.359 114.949 599.828 113.612
435.856 139.362 618.465 138.312
370.367 86.1726 639.607 84.9215
381.629 75.3347 662.515 74.124
466.882 154.758 763.579 91.2919
471.364 92.1116 757.222 91.0378
554.86 180.802 726.101 19.0128
468.036 136.171 754.038 94.0818
419.191 148.18 184.133 78.3963
417.937 155.49 197.634 78.5156
425.342 114.03 91.1883 78.4483
464.142 190.662 135.217 26.7975
455.597 165.609 110.925 39.5393
420.685 139.727 197.158 78.4967
669.903 74.6177 319.156 73.64
423.247 125.182 166.205 78.4974
510.543 145.725 271.217 47.8403
474.658 93.4707 298.786 92.4151
433.615 293.156 286.04 39.0298
294.312 84.3377 299.112 83.2794
551.522 145.065 386.695 49.1568
572.62 118.7 374.491 60.4442
312.97 91.6249 315.761 90.5626
502.995 191.289 324.75 48.3888
410.273 198.745 279.241 78.4993
356.07 129.83 401.642 128.732
293.418 88.4551 310.798 87.411
456.658 108.972 333.515 107.686
393.136 146.308 127.089 52.5097
329.578 46.4671 134.618 45.4698
121.892 445.293 405.376 0.01
192.112 47.0586 0.998017 0.01
192.531 1.008 0.998017 0.01
282.121 473.544 313.368 0.01
336.356 165.92 0.998017 0.01
354.262 486.265 919.726 0.01
396.717 1.008 919.726 0.01
436.717 500.806 313.368 0.01
490.971 193.182 0.998017 0.01
494.814 511.049 406.137 0.01
494.814 511.049 919.726 0.01
539.439 1.00978 919.725 0.01
565.167 112.065 0.998017 0.01
997.784 92.2049 0.998017 0.01
999.002 1.008 0.998017 0.01
190.648 55.3974 78.643 0.01
191.761 49.059 29.2884 0.01
190.368 1.008 102.791 0.01
191.181 1.008 69.5345 0.01
191.753 1.008 40.4891 0.01
192.321 24.0433 0.998035 0.01
325.61 70.5962 0.998017 0.01
287.912 63.9497 0.998017 0.01
220.721 52.1029 0.998017 0.01
338.986 1.008 0.998017 0.01
283.015 1.008 0.998017 0.01
221.582 1.008 0.998017 0.01
38.3523 1.008 541.085 0.01
38.0186 1.008 572.523 0.01
39.1406 1.008 608.742 0.01
52.4713 1.008 651.11 0.01
110.341 1.008 458.623 0.01
55.3309 1.008 472.558 0.01
42.2971 1.008 497.1 0.01
55.0749 78.0343 469.055 0.01
333.988 1.008 717.629 0.01
311.388 1.008 699.972 0.01
290.186 1.008 687.682 0.01
317.611 272.206 236.741 0.01
320.002 258.633 223.844 0.01
151.726 276.056 366.679 0.01
149.08 291.091 373.332 0.01
141.094 336.409 389.674 0.01
292.033 417.255 307.737 0.01
287.513 442.91 311.242 0.01
295.704 396.443 303.726 0.01
299.597 374.4 296.732 0.01
303.947 349.751 286.583 0.01
1.07225 423.991 548.73 0.01
0.998015 423.978 574.29 0.01
1.91053 424.138 605.428 0.01
7.12648 425.057 633.196 0.01
54.031 433.327 665.043 0.01
98.9976 441.256 666.838 0.01
128.724 406.567 402.698 0.01
174.587 454.585 405.376 0.01
702.143 1.008 0.998017 0.01
664.421 1.008 0.998017 0.01
537.676 1.008 0.998017 0.01
567.124 1.008 0.998017 0.01
605.973 1.008 0.998017 0.01
559.959 111.147 0.998017 0.01
564.935 113.385 31.3769 0.01
565.066 112.642 15.6257 0.01
669.324 47.8254 0.998017 0.01
640.715 42.781 0.998017 0.01
577.929 39.6544 0.998017 0.01
570.209 83.4552 0.998017 0.01
381.55 173.889 0.998017 0.01
504.213 118.019 0.998017 0.01
530.91 106.025 0.998017 0.01
884.391 1.008 0.998018 0.01
948.81 1.008 0.998017 0.01
858.465 81.1756 0.998017 0.01
914.028 90.9726 0.998017 0.01
988.432 1.008 0.998017 0.01
982.1 1.008 147.826 0.01
987.525 1.008 120.57 0.01
994.249 1.008 72.2579 0.01
998.165 1.008 22.5473 0.01
951.02 97.4948 0.998017 0.01
978.593 95.5888 0.998017 0.01
980.596 95.2334 149.438 0.01
986.264 94.2346 120.59 0.01
992.198 93.1889 81.8005 0.01
996.329 92.4609 30.8571 0.01
998.172 63.1565 0.998017 0.01
998.56 34.108 0.998017 0.01
972.123 1.008 187.137 0.01
976.494 1.008 170.189 0.01
974.97 96.2257 170.789 0.01
918.019 1.008 318.158 0.01
935.098 1.008 284.19 0.01
952.208 1.008 244.624 0.01
965.491 1.008 207.654 0.01
956.11 99.5508 231.572 0.01
885.404 1.008 371.654 0.01
859.24 1.008 408.285 0.01
828.563 1.008 444.718 0.01
799.55 1.008 475.579 0.01
393.573 1.008 830.681 0.01
395.608 1.008 867.838 0.01
396.135 29.6122 919.726 0.01
437.041 1.00815 919.726 0.01
641.744 155.465 620.71 0.01
656.909 152.442 603.365 0.01
687.617 146.894 572.732 0.01
832.629 121.326 437.787 0.01
804.117 126.353 468.147 0.01
773.038 131.833 497.44 0.01
395.002 85.2708 919.726 0.01
391.519 160.343 919.726 0.01
332.951 185.193 109.292 0.01
331.678 192.435 127.034 0.01
327.262 217.517 173.623 0.01
490.281 197.096 43.7191 0.01
489.46 201.722 69.6486 0.01
488.399 207.735 93.8802 0.01
409.742 178.86 0.998017 0.01
461.6 188.004 0.998017 0.01
490.561 195.534 32.1755 0.01
490.795 194.195 15.3819 0.01
499.681 143.714 0.998017 0.01
494.488 173.196 0.998017 0.01
557.907 152.303 176.26 0.01
555.699 165.133 200.724 0.01
553.016 180.93 227.884 0.01
552.033 186.501 235.864 0.01
399.068 494.166 313.368 0.01
436.717 500.806 383.516 0.01
465.327 505.85 406.137 0.01
494.814 511.049 453.628 0.01
504.296 453.567 401.417 0.01
499.216 484.58 404.223 0.01
522.228 318.284 356.095 0.01
523.789 304.221 347.678 0.01
526.699 279.89 331.694 0.01
494.814 511.049 896.741 0.01
494.814 511.049 775.281 0.01
494.814 511.049 804.332 0.01
494.814 511.049 833.383 0.01
494.814 511.049 653.844 0.01
494.814 511.049 682.895 0.01
494.814 511.049 720.517 0.01
619.071 161.329 650.527 0.01
605.24 167.781 672.071 0.01
590.175 176.112 696.735 0.01
353.183 486.075 870.03 0.01
362.064 437.353 919.726 0.01
382.872 491.31 919.726 0.01
411.482 496.355 919.726 0.01
440.092 501.4 919.726 0.01
494.814 511.049 918.14 0.01
501.274 468.98 919.726 0.01
163.129 1.008 384.281 0.01
183.985 93.1951 188.642 0.01
182.2 103.313 207.033 0.01
178.925 121.88 235.432 0.01
175.537 141.082 260.736 0.01
185.11 86.8315 175.755 0.01
188.725 66.2996 122.21 0.01
189.841 59.9897 100.942 0.01
183.53 1.008 212.952 0.01
188.46 1.008 136.005 0.01
186.793 1.008 165.008 0.01
236.733 1.008 670.566 0.01
261.059 1.008 676.42 0.01
306.238 336.754 280.759 0.01
308.482 324.015 273.592 0.01
158.294 238.84 345.579 0.01
481.239 248.334 178.398 0.01
479.454 258.427 192.674 0.01
475.876 278.748 215.962 0.01
477.791 267.874 204.206 0.01
169.675 174.335 296.257 0.01
172.962 155.685 277.643 0.01
282.121 473.544 386.597 0.01
233.501 464.97 680.199 0.01
219.413 462.487 675.503 0.01
191.154 457.505 669.772 0.01
148.524 449.988 667.413 0.01
279.212 1.008 682.599 0.01
142.834 1.008 666.973 0.01
171.883 1.008 667.241 0.01
352.45 485.947 836.295 0.01
348.972 485.333 817.348 0.01
153.969 263.335 360.243 0.01
579.686 1.008 729.84 0.01
568.789 1.008 757.394 0.01
558.084 1.00798 789.86 0.01
536.661 117.731 919.725 0.01
370.821 1.008 763.934 0.01
361.788 1.008 749.314 0.01
546.364 221.858 802.738 0.01
564.178 117.66 60.3031 0.01
562.842 125.24 102.315 0.01
559.576 143.444 156.239 0.01
561.186 134.666 134.044 0.01
731.719 1.008 0.998017 0.01
760.77 1.008 0.998017 0.01
699.918 53.2196 0.998017 0.01
775.131 66.4816 0.998017 0.01
746.521 61.4369 0.998017 0.01
905.489 1.008 340.095 0.01
910.859 107.53 327.78 0.01
929.077 104.319 293.013 0.01
947.521 101.066 252.469 0.01
850.701 118.139 416.56 0.01
872.901 114.224 386.914 0.01
540.202 233.59 291.793 0.01
544.478 221.847 279.371 0.01
391.71 1.00797 819.991 0.01
617.077 1.00804 660.289 0.01
605.151 1.008 679.987 0.01
588.457 1.008 710.724 0.01
624.961 1.008 649.125 0.01
633.59 157.214 629.777 0.01
626.405 159.144 639.555 0.01
387.172 231.025 919.726 0.01
388.499 209.803 919.726 0.01
529.402 242.255 919.725 0.01
531.963 207.305 919.725 0.01
534.587 166.939 919.725 0.01
482.755 239.767 165.605 0.01
484.003 232.7 152.52 0.01
174.469 1.008 301.373 0.01
546.996 213.309 269.858 0.01
549.509 200.837 254.914 0.01
630.905 158.598 316.784 0.01
616.172 164.036 325.214 0.01
108.062 1.008 666.652 0.01
64.4366 1.008 658.405 0.01
40.1918 180.842 478.941 0.01
42.5375 153.831 478.271 0.01
65.3691 180.827 460.854 0.01
44.7658 130.65 477.08 0.01
48.5714 111.442 473.573 0.01
52.8654 90.694 470.046 0.01
282.121 473.544 366.47 0.01
282.121 473.544 339.582 0.01
283.79 464.062 312.71 0.01
303.98 477.398 313.368 0.01
38.2043 207.674 478.627 0.01
62.752 213.248 460.818 0.01
36.5362 230.193 478.363 0.01
35.0576 255.185 476.826 0.01
59.8602 249.07 460.778 0.01
86.4843 439.049 458.097 0.01
49.9586 432.609 459.852 0.01
6.43974 424.937 491.735 0.01
2.13373 424.178 522.908 0.01
31.331 297.962 475.253 0.01
239.667 466.06 405.376 0.01
134.181 375.608 398.127 0.01
246.551 467.272 686.438 0.01
267.609 470.985 698.454 0.01
290.416 475.007 716.255 0.01
312.284 478.863 738.609 0.01
328.461 481.717 762.824 0.01
508.797 423.439 395.512 0.01
510.892 408.628 391.662 0.01
555.387 209.176 775.604 0.01
347.086 74.3828 0.998017 0.01
349.423 91.845 0.998017 0.01
507.434 1.008 0.998016 0.01
431.64 1.008 0.998017 0.01
460.691 1.008 0.998017 0.01
383.182 1.008 0.998017 0.01
802.132 1.008 0.998017 0.01
842.923 1.008 0.998017 0.01
823.058 74.9325 0.998017 0.01
533.393 249.32 307.556 0.01
536.454 242.249 300.47 0.01
842.917 119.512 425.703 0.01
787.394 1.00802 487.142 0.01
740.404 137.515 261.28 0.01
783.881 129.86 235.551 0.01
473.422 1.00827 919.726 0.01
507.833 1.00901 919.725 0.01
538.135 82.7288 919.725 0.01
538.79 47.7041 919.725 0.01
552.83 1.00798 810.768 0.01
547.592 1.008 836.494 0.01
542.579 1.0083 872.039 0.01
703.005 1.008 561.467 0.01
741.849 1.00799 527.426 0.01
743.704 137.005 522.831 0.01
635.151 1.008 634.695 0.01
659.754 1.008 605.103 0.01
345.927 111.666 0.998017 0.01
340.851 140.436 0.998017 0.01
333.75 180.675 95.6151 0.01
335.776 169.196 44.1074 0.01
356.481 169.468 0.998017 0.01
494.814 511.049 494.893 0.01
432.198 500.009 313.368 0.01
436.717 500.806 337.131 0.01
451.887 414.796 300.185 0.01
449.101 430.614 304.079 0.01
439.222 486.621 312.686 0.01
520.971 329.448 361.762 0.01
518.726 348.613 370.697 0.01
516.87 363.876 377.187 0.01
514.107 384.87 384.325 0.01
472.735 296.574 232.402 0.01
568.08 194.089 362.887 0.01
463.454 349.182 271.643 0.01
559.377 204.349 373.848 0.01
551.788 213.942 382.298 0.01
384.156 260.504 919.726 0.01
379.865 302.44 919.726 0.01
372.052 369.766 919.726 0.01
526.493 273.873 919.725 0.01
515.429 371.801 919.726 0.01
520.625 328.652 919.725 0.01
509.163 417.604 919.726 0.01
179.411 1.008 253.153 0.01
165.931 195.588 314.907 0.01
113.061 443.737 457.709 0.01
117.544 444.527 431.542 0.01
125.14 426.884 404.103 0.01
139.625 448.42 405.376 0.01
155.346 1.008 435.352 0.01
139.378 1.00799 457.981 0.01
313.143 297.538 256.988 0.01
315.438 284.519 246.895 0.01
534.454 246.868 305.1 0.01
321.958 247.519 212.747 0.01
323.796 237.13 200.339 0.01
469.935 312.469 247.061 0.01
164.018 206.449 324.439 0.01
494.814 511.049 522.563 0.01
454.276 401.268 295.799 0.01
461.128 362.405 278.912 0.01
506.407 439.44 398.648 0.01
494.814 511.049 514.507 0.01
494.814 511.049 552.27 0.01
494.814 511.049 581.321 0.01
390.018 1.008 810.287 0.01
383.901 1.008 791.437 0.01
345.859 1.008 729.629 0.01
584.429 179.755 706.957 0.01
577.342 185.502 721.432 0.01
566.575 195.554 745.462 0.01
486.635 217.758 120.791 0.01
712.386 142.51 276.376 0.01
682.495 147.798 290.995 0.01
649.064 154.493 307.415 0.01
466.326 332.884 261.825 0.01
574.316 188.655 356.876 0.01
602.542 169.387 333.138 0.01
582.045 181.921 349.427 0.01
147.173 301.931 377.888 0.01
913.072 1.008 0.998017 0.01
885.426 85.9295 0.998017 0.01
394.547 107.59 919.726 0.01
393.717 124.349 919.726 0.01
439.829 184.165 0.998017 0.01
554.375 173.029 215.02 0.01
361.219 487.491 313.368 0.01
572.607 189.52 731.368 0.01
579.315 31.9553 0.998017 0.01
219.181 28.8746 66.2183 27.892
218.54 27.9602 52.0252 26.9759
220.805 31.0729 86.148 30.0862
219.129 28.8097 65.224 27.825
218.328 27.6453 46.2872 26.6583
294.37 33.6961 34.0478 32.7314
281.611 32.4768 32.9149 31.5848
257.719 30.3146 30.8072 29.4436
305.54 34.5172 34.834 33.6221
280.138 32.2187 32.4189 31.2912
250.998 29.646 30.0367 28.7428
221.358 30.2617 78.1047 29.5652
108.485 72.1176 594.505 71.3921
93.915 56.0439 610.82 55.0212
91.9258 54.1519 511.476 53.0501
67.4041 17.5503 481.838 16.5203
79.0566 38.461 499.7 37.3812
321.703 31.6669 669.407 30.6401
135.119 100.584 570.269 99.0886
139.129 146.71 561.191 105.569
318.103 448.057 341.885 31.0719
381.446 360.456 368.419 78.1923
464.784 177.624 752.863 93.9572
464.515 170.089 740.715 98.2656
464.872 172.906 746.011 96.5775
887.731 44.4611 44.459 43.4669
890.287 44.5104 44.4945 43.5678
910.545 46.483 46.4441 45.4751
883.844 44.1519 43.9263 43.0345
870.426 42.9976 42.576 41.7632
843.474 59.7457 204.491 58.7497
935.621 52.3072 111.396 51.5718
933.042 51.9202 130.702 50.9536
936.631 51.6037 113.866 50.619
936.953 51.5751 112.355 50.5892
929.384 52.2422 144.449 51.2842
923.141 52.7926 165.778 51.8394
900.192 54.7267 230.378 53.4974
892.486 55.4969 247.069 54.0598
808.203 62.58 373.676 61.5441
791.471 64.1338 391.976 63.1551
468.84 74.0619 846.471 73.8682
468.681 75.0505 846.113 74.0771
427.244 32.5035 888.215 31.4025
428.299 33.2673 887.132 32.4133
435.303 41.2654 879.952 39.7905
431.274 35.9709 884.347 35.2572
644.348 76.853 511.668 75.5178
606.615 81.5718 542.539 80.1947
629.723 78.4065 524.285 77.1833
785.485 64.9947 397.357 63.7194
770.026 66.1175 412.53 64.9738
730.895 69.5065 445.428 68.4492
769.585 66.0329 413.046 64.8752
762.46 66.5941 420.233 65.4296
747.597 67.986 432.803 66.6539
466.634 160.65 31.0512 29.5843
471.112 166.608 25.388 24.1038
474.613 171.861 20.512 19.5762
470.034 165.543 26.0442 25.2506
475.995 173.136 19.507 18.3801
323.458 445.215 345.489 35.2152
330.941 439.815 351.491 41.7907
398.064 446.414 356.762 47.1658
437.412 429.652 469.33 69.8075
432.352 422.91 474.353 75.6681
427.232 415.772 479.63 81.6224
430.381 420.204 476.886 77.9283
425.521 415.193 745.565 82.762
426.93 417.807 755.702 80.5935
424.062 413.953 739.144 83.9136
365.587 182.155 501.561 181.209
355.319 202.31 517.126 184.1
463.933 132.424 690.072 118.916
490.001 113.999 650.002 112.933
478.658 118.39 661.876 117.256
448.173 131.982 650.99 131.034
431.697 420.22 781.235 77.4142
432.771 421.734 796.158 76.0752
433.8 422.995 808.122 74.9956
440.525 393.869 846.839 71.8007
436.221 425.778 846.136 72.6434
436.357 425.708 846.176 72.6548
433.959 423.263 809.101 74.658
431.939 423.053 792.482 75.9394
447.975 333.216 847.724 71.7023
444.794 360.139 847.485 71.6608
445.586 353.662 848.122 71.6014
444.737 362.403 847.315 71.7851
271.555 106.472 361.732 105.652
247.711 71.9515 272.74 70.8379
240.565 60.3711 235.167 59.3571
242.558 64.1257 249.779 62.8574
236.836 54.9882 214.999 53.9868
224.976 37.5754 134.422 36.5843
232.66 47.9371 186.164 47.0696
233.316 48.9431 190.779 48.0337
230.553 44.6063 170.353 43.7869
227.733 40.6255 151.196 39.7846
226.507 38.8308 142.9 38.0472
231.567 46.8355 181.928 45.9463
226.907 39.4817 146.006 38.6268
230.776 45.4105 174.538 44.5002
133.073 96.7147 571.812 95.9198
281.14 121.987 396.62 121.073
279.621 119.634 391.057 118.648
281.319 122.568 398.871 121.633
273.547 110.476 370.031 109.268
275.85 112.82 375.326 111.904
274.576 111.28 371.953 110.312
273.384 109.511 368.578 108.714
280.007 119.481 390.641 118.617
249.163 73.1408 275.542 72.1942
286.668 129.859 411.154 128.85
287.789 132.647 417.7 131.66
289.393 134.363 420.354 133.303
384.624 344.438 362.523 78.3881
384.336 345.088 362.689 78.3088
384.224 345.823 362.761 78.308
121.987 85.2474 582.859 84.5706
390.385 365.555 621.276 125.019
390.654 365.463 621.252 125.071
387.619 362.583 613.953 127.924
468.192 95.9365 749.986 95.2568
467.225 105.116 726.613 103.948
467.508 104.518 727.55 103.499
443.674 134.865 641.121 133.792
446.677 132.899 648.008 131.806
444.341 134.414 643.134 133.248
441.679 135.885 637.797 134.757
437.035 138.81 629.469 137.619
402.701 158.166 574.976 157.344
390.541 165.61 558.866 164.411
398.437 160.952 570.238 159.732
400.823 159.365 572.176 158.577
382.814 170.263 547.7 169.362
384.129 355.912 603.649 132.879
400.787 159.615 573.079 158.448
470.354 82.755 803.727 81.0048
470.304 81.5437 813.912 79.5145
465.405 192.524 790.099 83.5497
464.825 189.514 781.508 86.2148
463.757 194.475 774.474 87.5018
760.414 66.8669 266.141 65.8645
691.413 26.8379 26.8312 25.8398
688.181 26.5475 26.5411 25.5495
693.259 27.0037 26.9972 26.0057
764.677 66.4484 262.951 65.4444
732.859 69.8103 288.272 68.9023
813.109 37.6851 38.2971 36.8717
747.521 31.5431 32.5024 30.9141
762.024 33.1304 33.6879 32.3633
774.976 34.3163 34.8191 33.5157
741.578 31.3476 31.3751 30.3596
785.493 35.3305 35.3614 34.3057
761.628 33.1578 33.6036 32.2751
792.484 35.8644 36.2603 35.0425
810.542 37.5239 37.8882 36.5745
816.51 62.2395 362.848 60.9947
834.237 60.4074 342.484 59.1614
599.666 82.1814 547.303 81.3679
597.081 83.2735 547.918 82.2803
469.917 74.8775 844.657 74.2722
469.917 78.8534 820.746 77.9993
469.203 83.5104 796.419 82.6485
469.791 87.5437 779.654 86.5236
469.925 86.202 782.155 85.524
465.201 185.415 778.979 87.1155
361.595 185.69 520.195 184.212
354.567 236.915 526.795 177.079
355.307 208.388 519.09 182.775
121.735 86.2671 580.925 85.3105
126.829 91.2604 575.811 90.4437
129.785 94.5138 572.905 93.5127
98.2566 60.7147 606.213 59.6957
87.5962 48.7151 616.542 47.8519
87.0876 48.1324 617.024 47.279
85.6053 42.4473 623.559 41.4262
138.123 102.499 559.645 101.79
139.212 145.591 562.184 104.485
140.445 106.404 562.316 104.785
96.0478 102.214 518.624 59.7727
90.1634 141.45 513.274 54.3722
92.045 126.858 515.215 55.9587
91.6342 118.614 514.886 55.6231
322.57 445.281 345.105 34.8519
312.529 452.09 337.637 26.3517
320.477 446.498 344.462 33.3563
311.496 452.835 336.892 25.471
309.68 454.194 335.39 23.8739
311.069 453.313 336.28 24.944
389.139 317.653 349.694 78.3286
79.2536 234.853 509.173 49.8781
77.8199 237.639 508.078 48.4409
76.6824 248.813 507.87 48.2384
78.2734 245.187 509.272 49.9439
76.1884 263.953 509.664 50.1864
69.4422 377.221 516.221 58.0839
57.0967 391.596 500.079 41.6421
63.4955 381.144 511.72 53.1602
278.549 322.397 532.579 147.85
362.133 184.372 505.957 183.493
354.6 228.075 524.561 178.596
355.866 199.36 516.493 184.869
374.123 176.308 490.819 175.423
367.951 180.19 532.578 177.046
465.609 178.739 761.791 91.8155
463.187 125.44 682.28 123.987
466.018 109.309 714.66 108.569
465.646 110.324 712.77 109.556
467.236 104.664 724.736 104.163
467.522 102.263 731.151 101.669
464.238 147.147 708.885 111.316
463.893 124.199 684.994 122.86
464.519 137.424 699.71 115.177
464.114 157.604 721.829 105.823
464.447 139.18 701.806 114.255
866.611 42.5209 42.7113 41.5698
876.674 43.2939 43.3048 42.3636
873.231 43.27 43.569 42.2873
857.94 41.8324 42.1999 40.8953
860.57 42.1218 41.7052 40.8661
833.739 39.7078 39.4901 38.5572
799.786 63.6138 381.692 62.6905
820.278 61.8225 355.991 61.0064
822.72 61.6193 354.765 60.6078
797.792 63.7031 386.304 62.5573
797.238 63.8682 386.838 62.6187
802.689 63.3846 380.211 62.1485
800.934 63.5345 382.159 62.3287
736.828 69.1001 439.613 68.1966
774.876 65.6479 407.518 64.6579
767.458 66.2477 414.38 65.3053
750.911 67.7653 428.98 66.7952
717.028 70.819 455.97 69.8596
654.916 76.8156 331.984 75.8724
664.634 75.9573 327.245 75.0251
750.655 68.1233 277.063 67.1502
731.482 69.7428 287.548 68.8088
464.556 153.396 720.119 106.816
464.621 163.149 733.366 101.387
464.715 159.355 728.855 103.283
469.325 75.1371 845.175 74.4322
479.301 63.4275 857.314 62.6218
492.331 49.7508 870.96 48.8534
496.091 46.1394 874.562 45.1546
489.146 54.1266 866.652 53.0158
491.064 51.79 868.842 50.8106
473.685 70.4971 849.898 69.6734
491.431 51.8899 868.265 50.9057
493.072 50.0248 870.257 49.0214
647.956 76.833 508.066 75.9239
665.529 75.5987 494.019 74.3681
705.288 71.9137 465.09 70.9515
712.159 71.0198 460.131 70.091
668.635 74.7958 492.579 73.8011
692.763 72.7413 474.55 71.789
683.698 73.9759 480.599 72.8433
576.793 86.9517 565.111 86.062
580.376 86.2806 565.95 84.8954
586.781 84.9211 560.684 83.4524
622.438 79.4934 528.499 78.5788
581.654 85.1524 564.001 84.3334
600.461 82.103 546.804 81.3097
470.239 81.3721 810.642 79.8245
469.831 81.911 806.485 80.7143
470.102 83.6892 792.306 82.6947
471.347 78.3939 818.209 77.4447
392.766 129.589 50.3051 49.3159
392.602 129.786 50.6885 49.3466
389.592 131.725 48.0805 46.6762
387.897 132.595 46.1603 44.9743
444.045 439.737 462.484 61.4026
451.844 451.692 454.67 51.1403
375.261 398.572 379.827 78.3026
398.754 446.795 356.23 46.6485
399.183 446.866 356.686 46.5101
406.962 457.66 348.303 36.9094
377.452 173.252 540.361 172.67
371.031 178.332 532.355 177.346
356.096 188.563 514.027 187.608
370.912 178.861 532.67 177.296
386.746 167.732 552.684 167.112
429.222 143.073 611.674 142.162
459.644 127.042 673.619 126.091
454.325 129.887 661.988 128.744
463.218 119.832 691.716 119.192
450.355 132.024 653.493 131.078
466.964 105.932 721.384 105.459
434.232 139.585 621.315 138.754
458.578 127.656 670.901 126.67
470.351 122 672.797 120.915
451.199 131.677 655.327 130.58
462.444 126.128 680.263 124.641
462.493 131.51 685.641 121.265
450.333 132.326 652.775 131.006
446.942 134.064 644.707 132.867
463.626 113.312 703.353 112.657
464.801 139.621 706.389 112.658
251.721 75.7645 283.315 75.1549
242.224 62.2456 242.932 61.4846
242.861 63.2802 246.991 62.5369
243.037 63.4874 248.039 62.8007
248.68 72.6926 277.181 72.092
246.258 68.8733 262.877 67.9074
300.307 151.571 453.05 150.345
422.176 146.702 605.396 145.34
354.595 234.53 525.649 177.243
336.223 184.231 509.486 183.429
355.973 208.797 519.439 182.613
356.583 188.258 512.959 187.699
469.869 91.1028 762.978 90.5565
466.531 110.713 712.811 110.046
470.043 89.9814 774.039 88.6234
468.007 97.0281 747.931 96.2929
468.505 95.3381 754.442 94.3889
469.007 98.5058 741.851 97.8453
468.846 93.7337 759.986 92.6534
464.458 159.996 731.656 101.879
440.483 136.66 634.026 135.814
469.741 90.1263 771.471 89.1883
470.249 88.3583 776.231 87.3853
334.74 37.3082 37.3919 36.3397
331.595 37.0769 37.1227 36.0957
220.238 31.0583 86.8199 29.8293
219.874 30.2963 79.5256 29.1245
218.06 27.8236 53.6374 26.7251
217.779 27.2062 37.4357 26.1211
210.735 32.314 19.9859 18.8315
213.499 30.5461 22.697 21.4975
217.62 26.9071 26.9778 25.8462
220.997 31.995 96.4984 30.9156
214.039 22.8771 23.4063 22.0786
216.409 25.2383 25.7072 24.3881
211.322 31.8264 20.3437 19.387
211.255 20.2858 20.2218 19.2117
323.32 36.2204 35.5767 34.9172
307.192 34.8436 34.2622 33.5911
285.371 32.9435 32.454 31.7056
244.064 29.1312 28.6889 27.9343
224.782 27.4659 27.0926 26.2705
303.296 458.45 329.958 18.2828
32.5501 412.707 642.497 16.5618
154.113 418.122 435.47 32.1937
149.793 421.561 431.649 27.9615
145.803 424.882 427.627 23.9321
688.045 26.3965 26.5121 25.5307
700.197 27.4806 27.3828 26.5449
667.537 24.5777 24.5459 23.6448
643.714 22.425 22.0887 21.3929
550.091 29.7732 29.7319 28.8795
521.884 54.2391 54.0032 53.0556
624.143 20.7013 20.6201 19.7364
558.023 102.247 9.73731 8.74638
554.279 96.6613 14.4005 13.4988
547.728 87.5614 22.8583 21.7468
551.151 92.7329 18.5306 17.3254
545.127 85.2912 25.3368 24.1806
550.951 92.1079 18.4939 17.5709
552.688 95.1356 16.1817 15.1674
534.355 70.7137 38.5101 37.527
532.884 67.3851 40.5849 39.8568
550.096 91.1232 19.7623 18.6347
375.093 139.971 34.0626 33.3829
367.692 145.302 27.6552 26.8826
363.442 148.41 24.0113 23.2071
541.912 80.6868 29.2999 28.2054
512.132 53.2269 53.1267 52.1982
975.148 23.1263 23.2267 22.2902
972.118 25.9619 25.9067 25.1447
985.019 14.1872 14.4023 13.2645
985.246 14.1025 13.9914 13.0543
935.168 51.4363 129.124 50.3203
936.255 51.6248 116.42 50.6051
939.667 51.0343 105.523 49.9501
979.99 19.0464 19.1592 18.0866
962.841 65.3601 33.7968 33.214
959.551 62.1834 37.6825 36.7729
979.877 77.8929 18.1134 17.1995
977.826 75.7158 20.2327 19.3945
929.273 52.1543 149.187 50.8044
972.914 71.8089 25.1509 24.1385
921.524 52.9135 172.176 51.8955
925.008 52.3196 166.271 51.1841
920.103 53.0047 181.186 51.6353
904.079 54.1567 223.279 53.1207
915.099 53.1942 195.868 52.1235
417.884 22.5492 898.577 21.3395
478.685 177.354 15.4738 14.5876
478.009 176.125 16.417 15.5404
478.386 176.456 16.7176 15.4592
481.113 179.855 13.0789 12.089
418.822 475.91 333.189 21.6269
420.267 477.856 331.485 19.8281
473.905 482.391 895.193 24.678
475.15 483.578 896.101 23.6193
431.557 422.656 785.261 76.3058
434.205 425.991 819.309 73.2738
433.081 425.824 801.968 73.8523
449.565 448.364 864.982 54.2794
453.99 454.186 869.91 49.241
458.374 460.122 874.991 44.2084
435.55 429.334 840.009 70.8348
454.992 454.845 870.724 48.5601
392.175 459.035 886.145 33.3134
383.253 465.588 893.693 25.5993
391.291 460.012 886.926 32.5018
382.583 465.625 894.96 24.8989
389.116 461.22 889.449 30.4787
407.796 447.545 872.013 47.1974
434.685 429.844 849.836 70.902
396.724 456.733 882.866 36.8601
447.192 444.599 863.62 56.6315
472.969 481.323 894.588 25.5703
467.084 472.576 887.114 32.8834
451.165 449.529 867.954 52.2545
480.741 491.353 903.176 16.7966
233.727 51.9101 204.111 50.4678
234.921 53.8568 213.086 52.3941
232.298 49.7541 195.575 48.3355
230.483 45.6984 176.818 44.691
224.544 37.4993 134.648 36.3754
227.095 40.3491 151.461 39.4578
223.745 35.7177 122.849 34.7133
431.749 430.016 850.861 68.3223
726.321 29.8067 29.493 28.808
736.45 30.7363 30.5479 29.7691
768.045 33.5557 33.1383 32.5206
756.452 32.5008 32.1432 31.4953
787.701 35.4642 34.8486 34.1636
296.674 463.373 325.213 12.6443
300.958 460.293 328.665 16.3912
296.533 463.5 324.689 12.3856
810.923 37.376 36.7749 36.2973
519.31 21.3664 899.662 20.3371
519.428 21.1321 899.225 20.3121
518.247 23.3726 897.938 21.9467
360.106 149.823 21.9587 20.765
354.332 153.65 16.5593 15.6765
356.708 152.334 18.6898 17.6924
429.449 490.418 321.881 9.0219
428.289 488.666 322.92 10.3928
423.36 481.538 328.93 16.596
440.486 392.078 848.054 71.7274
138.679 431.088 421.491 16.9167
138.662 431.189 421.557 16.9241
136.138 433.315 418.66 14.2161
555.356 206.538 378.392 1.72888
473.957 192.944 366.074 75.6027
568.592 160.131 366.314 25.7878
473.783 168.079 347.765 80.161
555.074 199.945 378.904 6.35086
464.914 191.829 375.298 84.8468
